ply
format ascii 1.0
element vertex 142
property float x
property float y
property float z
property uint8 red
property uint8 green
property uint8 blue
end_header
-1.075349 238.937500 1.651377 72 102 117
-44.498848 240.631409 12.542170 168 176 92
-26.502396 153.944336 -12.136869 54 126 141
8.342666 207.033981 -20.545660 125 125 113
-77.350311 114.586319 -65.808372 143 171 190
-84.686798 115.093651 -65.839844 153 176 193
-81.574921 123.748169 -51.089397 140 38 42
-71.515121 126.667305 -48.179203 124 34 23
-86.813171 128.440506 -45.674789 138 73 79
-75.534531 106.786858 -68.116783 99 64 82
-71.533554 121.551720 -50.158691 94 137 130
-37.272736 306.710510 17.391073 122 142 153
-70.044853 283.218811 18.719030 170 171 113
-2.664950 289.951508 28.275726 97 87 95
-90.602234 115.115570 -65.716507 176 167 177
-45.787067 254.372101 13.149512 128 132 119
6.279341 209.288651 -17.884205 115 135 134
12.968226 204.511932 -15.427649 43 91 109
-75.979927 124.247269 -46.851307 116 122 114
12.968226 204.511932 -15.427649 43 91 109
-79.650330 122.311241 -51.715549 128 151 154
-74.593918 121.509590 -52.875771 64 123 117
-53.267818 98.790588 -39.489410 101 34 40
-68.561722 120.633621 -50.442581 135 135 133
-49.073170 272.031097 22.907681 103 97 47
-77.274437 115.897873 -64.910309 170 170 178
-49.073170 272.031097 22.907681 103 97 47
-100.732033 253.826706 17.208092 57 75 85
-87.253204 122.664940 -59.657211 156 179 187
-38.742554 263.595428 18.893255 57 93 93
-34.733479 106.658226 -39.622501 77 112 114
-38.900101 264.426544 18.954725 57 93 93
-81.561729 115.943207 -69.583481 134 163 177
-43.260742 251.381561 13.276010 150 187 190
-64.620010 122.160286 -43.884937 80 22 8
-29.300953 266.765839 17.087807 160 188 196
-83.960526 116.162041 -59.722214 149 182 191
-42.208862 116.254417 -44.759441 53 55 61
-89.834938 114.902443 -67.166466 171 140 172
-84.135735 112.983025 -66.249954 156 144 164
-84.135735 112.983025 -66.249954 156 144 164
-81.727455 114.239151 -67.313278 150 119 127
-81.727455 114.239151 -67.313278 150 119 127
-79.555077 114.030998 -67.121117 124 85 111
-79.480278 113.974792 -67.154594 124 85 111
-75.966171 113.884064 -67.291924 138 98 124
-75.868767 113.768402 -67.227348 138 98 124
-60.572815 275.819763 24.939724 132 125 117
-39.980991 262.307861 24.534195 135 136 130
-85.622803 131.970551 -45.764004 69 24 18
-85.447220 116.501923 -61.702644 176 71 99
-85.447220 116.501923 -61.702644 176 71 99
-86.459267 117.803604 -63.872761 159 180 184
-78.974838 118.752319 -59.201344 157 70 96
-78.770508 116.517586 -61.591686 153 84 96
-78.770508 116.517586 -61.591686 153 84 96
-73.558029 117.313599 -59.745621 146 165 175
-73.558029 117.313599 -59.745621 146 165 175
-83.607582 113.929604 -65.009712 159 177 184
14.088401 143.277817 -52.131992 76 86 84
-25.213390 99.273911 -55.318909 78 96 96
-29.015913 264.931885 16.959671 160 188 196
-81.240623 114.797562 -67.816597 155 108 132
-67.803406 90.040359 -65.994453 181 139 98
-46.020782 266.336029 25.777069 137 128 119
-47.253067 77.611908 -54.345516 55 77 90
12.304612 190.050369 -20.741142 121 135 131
-63.181942 262.247406 14.916375 134 129 110
-75.938164 115.855354 -66.999535 127 168 180
0.513946 20.097628 -3.309971 153 193 202
-38.966850 279.836243 21.928623 155 187 196
-90.618767 118.472305 -62.202042 159 181 195
-78.444542 124.264549 -48.289837 105 70 86
-85.087296 129.351395 -46.251759 120 56 64
-4.690888 83.768288 -16.780506 68 120 126
-75.842560 124.298454 -49.776310 71 131 103
-77.302986 127.462440 -45.818851 104 101 107
-86.287407 118.388512 -58.776592 172 181 196
1.651693 270.459991 21.633808 71 99 117
2.194251 23.843973 -4.061347 163 186 184
-70.395653 125.783989 -48.355370 149 91 95
-41.991516 111.725723 -43.343468 64 55 57
-85.831299 116.013702 -61.377617 191 168 186
-106.252792 244.416245 12.587928 83 101 105
-1.512172 277.268005 26.030228 137 138 132
-29.050476 263.610504 18.113199 130 129 127
-77.566399 125.849678 -45.957287 74 33 29
-75.801079 122.757805 -49.593365 43 101 76
-73.488510 120.464302 -53.177952 102 159 155
-73.788582 121.376495 -54.700314 62 121 106
-85.512337 118.826927 -59.197041 178 75 102
-82.458931 119.144325 -59.353642 160 80 103
-77.543404 116.076836 -59.603256 146 173 185
-77.521095 114.213730 -62.026863 154 186 211
-79.652313 115.769058 -64.684074 153 64 84
-61.365486 266.635986 22.599701 135 126 116
-48.745430 248.117401 12.211810 167 177 83
-81.841751 121.399063 -52.584312 126 57 65
-81.325104 124.478790 -52.096382 130 145 145
-79.607506 125.921638 -54.989601 83 137 124
-82.877914 119.241882 -57.844215 155 182 195
-76.599861 117.288040 -58.752899 162 66 85
-75.333000 118.250404 -57.608200 134 176 181
-72.026009 117.051544 -57.924633 141 62 68
-72.026009 117.051544 -57.924633 141 62 68
-84.207703 115.577454 -64.000481 173 49 72
-84.207703 115.577454 -64.000481 173 49 72
-81.068230 115.426445 -64.013435 173 58 71
-78.644356 115.630867 -62.803547 149 184 199
-77.177299 116.026451 -61.454544 157 60 77
-77.697525 114.969421 -64.066383 160 54 67
-75.287773 114.510643 -64.189209 160 61 75
-45.894104 277.524048 24.926271 167 183 146
-16.921053 270.490845 19.999002 159 154 143
-38.248039 242.224854 11.916116 143 190 201
-45.537651 253.664185 11.694370 132 133 115
-45.537651 253.664185 11.694370 132 133 115
-83.485413 117.721024 -59.175041 166 58 82
-82.601067 117.755699 -61.168411 140 189 194
-82.601067 117.755699 -61.168411 140 189 194
-80.436432 117.828995 -59.207539 170 71 93
-57.387531 290.161133 26.651714 176 175 93
-86.008369 119.616226 -53.697472 158 69 88
-80.322952 122.814690 -55.185810 67 128 104
-78.934555 118.730438 -56.871380 138 180 189
-76.998474 120.905106 -55.818096 64 130 101
-92.376472 283.333069 21.274885 144 140 129
-29.029690 279.698212 21.799330 137 132 113
-35.705994 278.548248 18.282667 147 193 209
-80.415161 128.417847 -46.177979 99 14 21
-75.948372 115.313583 -62.028400 185 149 163
-73.125046 127.201561 -45.732361 119 19 17
-84.368744 122.290077 -56.650761 153 180 193
-59.620872 89.046921 -62.880077 156 182 197
-34.678776 194.422546 -3.480963 126 144 129
-57.619129 313.114624 22.647852 177 181 87
-43.626389 202.233032 -16.490120 41 97 98
8.222886 154.507935 -47.380569 58 64 61
-92.358047 121.021904 -65.255035 178 173 180
-57.543060 90.174812 -59.389690 80 105 111
-43.391315 262.359650 15.394431 39 84 103
0.818412 32.850422 -1.042217 129 139 141
